ply
format ascii 1.0
element vertex 1225
property float x
property float y
property float z
property uchar red
property uchar green
property uchar blue
element edge 0
property int vertex1
property int vertex2
end_header
0.029104 1.800000 0.010764 25 255 156
0.008426 1.800000 -0.007800 25 255 156
0.012111 1.800000 0.013498 25 255 156
-0.022141 1.800000 -0.016702 25 255 156
0.029818 1.800000 0.027455 25 255 156
0.014142 1.800000 0.001258 25 255 156
0.000368 1.800000 0.002684 25 255 156
-0.020744 1.800000 -0.035302 25 255 156
-0.003748 1.800000 0.035710 25 255 156
-0.035731 1.800000 -0.052375 25 255 156
0.012639 1.800000 -0.021406 25 255 156
-0.000270 1.800000 -0.008074 25 255 156
0.002418 1.800000 0.003721 25 255 156
0.033125 1.800000 0.050100 25 255 156
-0.001811 1.800000 0.017837 25 255 156
0.018223 1.800000 0.012736 25 255 156
0.012052 1.800000 -0.009580 25 255 156
-0.022358 1.800000 0.005158 25 255 156
-0.001512 1.800000 0.015293 25 255 156
0.008191 1.800000 -0.032870 25 255 156
-0.006087 1.800000 -0.013115 25 255 156
-0.011859 1.800000 -0.010688 25 255 156
-0.001824 1.800000 0.001915 25 255 156
-0.002167 1.800000 0.002040 25 255 156
-0.019716 1.800000 -0.011075 25 255 156
-0.008055 1.800000 0.015438 25 255 156
-0.036360 1.800000 -0.036282 25 255 156
-0.002433 1.800000 0.004194 25 255 156
-0.008400 1.800000 0.001118 25 255 156
-0.005866 1.800000 0.000954 25 255 156
-0.002720 1.800000 0.015852 25 255 156
0.009889 1.800000 -0.000420 25 255 156
0.027412 1.800000 0.001877 25 255 156
-0.039672 1.800000 -0.041465 25 255 156
-0.017466 1.800000 -0.000197 25 255 156
0.016919 1.800000 0.025227 25 255 156
0.007027 1.800000 0.019357 25 255 156
0.002474 1.800000 -0.019815 25 255 156
-0.001586 1.800000 0.034501 25 255 156
0.015744 1.800000 -0.007368 25 255 156
0.011143 1.800000 -0.018405 25 255 156
-0.011807 1.800000 0.005403 25 255 156
0.011850 1.800000 0.007726 25 255 156
0.013814 1.800000 0.010408 25 255 156
-0.018306 1.800000 0.024603 25 255 156
0.008935 1.800000 0.024154 25 255 156
0.025183 1.800000 -0.010524 25 255 156
-0.002780 1.800000 0.010314 25 255 156
0.031122 1.800000 -0.001889 25 255 156
0.022933 1.800000 -0.013123 25 255 156
-0.002024 1.800000 0.008928 25 255 156
-0.003553 1.800000 0.002489 25 255 156
0.008173 1.800000 -0.002688 25 255 156
0.022637 1.800000 0.031205 25 255 156
-0.002860 1.800000 0.005904 25 255 156
0.012484 1.800000 0.007792 25 255 156
-0.002482 1.800000 -0.012917 25 255 156
0.019116 1.800000 0.050097 25 255 156
0.010300 1.800000 0.007867 25 255 156
-0.011483 1.800000 -0.011401 25 255 156
0.027222 1.800000 0.018495 25 255 156
-0.011759 1.800000 -0.002453 25 255 156
0.006452 1.800000 0.034548 25 255 156
-0.003008 1.800000 0.027615 25 255 156
-0.002209 1.800000 -0.019266 25 255 156
-0.006335 1.800000 0.001414 25 255 156
0.001577 1.800000 -0.019509 25 255 156
-0.087579 1.800000 -0.093715 25 255 156
-0.006751 1.800000 0.024966 25 255 156
0.012200 1.800000 0.011269 25 255 156
-0.004759 1.800000 0.001756 25 255 156
0.012960 1.800000 0.030183 25 255 156
-0.035652 1.800000 -0.038060 25 255 156
0.009913 1.800000 0.002207 25 255 156
0.018972 1.800000 0.003188 25 255 156
0.010023 1.800000 0.005753 25 255 156
0.026688 1.800000 0.015862 25 255 156
-0.004722 1.800000 0.008386 25 255 156
-0.025389 1.800000 -0.039207 25 255 156
0.025465 1.800000 0.021053 25 255 156
-0.003150 1.800000 -0.001995 25 255 156
-0.010356 1.800000 0.018612 25 255 156
0.011208 1.800000 0.011051 25 255 156
0.004774 1.800000 -0.014618 25 255 156
0.004517 1.800000 -0.010174 25 255 156
0.011183 1.800000 0.011280 25 255 156
0.028627 1.800000 0.019625 25 255 156
-0.001628 1.800000 -0.025801 25 255 156
0.001644 1.800000 0.016900 25 255 156
0.009531 1.800000 0.011274 25 255 156
0.009020 1.800000 -0.019052 25 255 156
-0.001457 1.800000 -0.000489 25 255 156
0.000900 1.800000 0.013435 25 255 156
-0.025535 1.800000 -0.015571 25 255 156
-0.030720 1.800000 -0.012719 25 255 156
0.009242 1.800000 -0.021003 25 255 156
-0.022799 1.800000 0.024643 25 255 156
-0.001321 1.800000 -0.005973 25 255 156
-0.027520 1.800000 0.004475 25 255 156
0.011096 1.800000 -0.021353 25 255 156
-0.012861 1.800000 0.017924 25 255 156
0.017104 1.800000 0.014675 25 255 156
0.000485 1.800000 -0.036868 25 255 156
0.017068 1.800000 -0.006053 25 255 156
-0.010506 1.800000 -0.002670 25 255 156
-0.012759 1.800000 -0.012256 25 255 156
0.015915 1.800000 0.058651 25 255 156
0.017634 1.800000 0.024381 25 255 156
0.006535 1.800000 0.001772 25 255 156
0.003532 1.800000 -0.000774 25 255 156
0.029412 1.800000 0.017386 25 255 156
-0.000734 1.800000 0.003536 25 255 156
-0.004699 1.800000 -0.000847 25 255 156
0.003951 1.800000 0.005556 25 255 156
0.044694 1.800000 0.024415 25 255 156
-0.000317 1.950000 -0.001841 25 255 205
-0.000300 1.950000 0.004847 25 255 205
0.002490 1.950000 -0.000782 25 255 205
-0.005221 1.950000 0.006704 25 255 205
0.017979 1.950000 -0.015103 25 255 205
0.012979 1.950000 0.030939 25 255 205
-0.011963 1.950000 0.007652 25 255 205
-0.013290 1.950000 -0.017686 25 255 205
-0.015770 1.950000 -0.011414 25 255 205
-0.003449 1.950000 -0.001275 25 255 205
0.021319 1.950000 -0.017673 25 255 205
-0.002873 1.950000 -0.012049 25 255 205
-0.008328 1.950000 -0.020128 25 255 205
-0.017522 1.950000 -0.006663 25 255 205
-0.015671 1.950000 0.020048 25 255 205
-0.010590 1.950000 -0.002928 25 255 205
-0.009797 1.950000 0.010199 25 255 205
0.004021 1.950000 0.003960 25 255 205
-0.007490 1.950000 0.006639 25 255 205
0.009036 1.950000 -0.005378 25 255 205
-0.010388 1.950000 0.003775 25 255 205
0.012616 1.950000 -0.024208 25 255 205
0.004789 1.950000 -0.022318 25 255 205
0.005449 1.950000 -0.019569 25 255 205
0.005775 1.950000 0.028476 25 255 205
0.015479 1.950000 0.007508 25 255 205
0.020160 1.950000 -0.009674 25 255 205
0.006003 1.950000 0.008494 25 255 205
-0.028961 1.950000 -0.000899 25 255 205
0.013171 1.950000 0.007276 25 255 205
-0.003324 1.950000 0.015948 25 255 205
-0.021869 1.950000 0.001917 25 255 205
-0.018247 1.950000 0.009187 25 255 205
0.006578 1.950000 -0.029577 25 255 205
-0.004102 1.950000 -0.036417 25 255 205
0.001680 1.950000 -0.019078 25 255 205
0.000650 1.950000 0.000454 25 255 205
-0.000635 1.950000 0.001696 25 255 205
-0.006112 1.950000 0.005312 25 255 205
-0.005354 1.950000 -0.023646 25 255 205
0.011628 1.950000 0.015365 25 255 205
0.022540 1.950000 0.003790 25 255 205
-0.021817 1.950000 0.011668 25 255 205
-0.028555 1.950000 -0.037912 25 255 205
0.025069 1.950000 0.006606 25 255 205
-0.038323 1.950000 -0.026519 25 255 205
0.004906 1.950000 0.017531 25 255 205
-0.011204 1.950000 -0.023021 25 255 205
-0.000059 1.950000 0.031095 25 255 205
-0.000258 1.950000 -0.012160 25 255 205
-0.004926 1.950000 0.014663 25 255 205
-0.005824 1.950000 0.011839 25 255 205
-0.008653 1.950000 -0.002355 25 255 205
-0.021292 1.950000 -0.006603 25 255 205
0.007895 1.950000 -0.007387 25 255 205
0.020057 1.950000 0.055173 25 255 205
0.003196 1.950000 0.016325 25 255 205
0.009506 1.950000 0.009214 25 255 205
0.033051 1.950000 0.003082 25 255 205
-0.001562 1.950000 -0.018653 25 255 205
0.025562 1.950000 -0.006659 25 255 205
-0.021570 1.950000 0.009469 25 255 205
0.021441 1.950000 -0.002529 25 255 205
-0.003578 1.950000 -0.020462 25 255 205
0.007382 1.950000 -0.009115 25 255 205
0.003961 1.950000 -0.001193 25 255 205
-0.028143 1.950000 -0.022221 25 255 205
0.004189 1.950000 -0.016350 25 255 205
0.018389 1.950000 0.024156 25 255 205
0.018631 1.950000 -0.001440 25 255 205
-0.003270 1.950000 -0.003007 25 255 205
0.010137 1.950000 0.019781 25 255 205
0.008743 1.950000 -0.040446 25 255 205
0.008018 1.950000 0.010384 25 255 205
-0.017422 1.950000 -0.017495 25 255 205
-0.008962 1.950000 -0.005903 25 255 205
0.028688 1.950000 -0.007924 25 255 205
0.006388 1.950000 0.000245 25 255 205
0.028203 1.950000 -0.027552 25 255 205
-0.015393 1.950000 -0.007280 25 255 205
0.009548 1.950000 0.006412 25 255 205
-0.021332 1.950000 0.029867 25 255 205
-0.014149 1.950000 0.032108 25 255 205
-0.007701 1.950000 0.004829 25 255 205
-0.032225 1.950000 -0.013045 25 255 205
0.023770 1.950000 -0.020208 25 255 205
-0.005355 1.950000 0.000738 25 255 205
0.023414 1.950000 0.012466 25 255 205
-0.002559 1.950000 0.000811 25 255 205
-0.020823 1.950000 0.018329 25 255 205
0.009243 1.950000 0.016036 25 255 205
0.005800 1.950000 -0.016039 25 255 205
0.012526 1.950000 -0.001842 25 255 205
0.000358 1.950000 0.019941 25 255 205
0.011087 1.950000 0.008132 25 255 205
-0.009833 1.950000 0.004309 25 255 205
0.035326 1.950000 -0.005337 25 255 205
0.020692 1.950000 -0.011817 25 255 205
-0.019077 1.950000 0.004409 25 255 205
0.013418 1.950000 0.029059 25 255 205
-0.034800 1.950000 0.015365 25 255 205
0.013155 1.950000 0.006832 25 255 205
0.005978 1.950000 0.018776 25 255 205
-0.028364 1.950000 0.006034 25 255 205
0.012065 1.950000 0.018808 25 255 205
-0.003198 1.950000 0.023463 25 255 205
0.017590 1.950000 0.015406 25 255 205
0.011334 1.950000 0.024974 25 255 205
0.016929 1.950000 0.020633 25 255 205
0.004611 1.950000 0.021433 25 255 205
-0.007930 1.950000 0.010329 25 255 205
-0.037855 1.950000 0.003080 25 255 205
0.028109 1.950000 -0.001912 25 255 205
0.004375 1.950000 -0.007584 25 255 205
0.012411 1.950000 -0.005074 25 255 205
0.000178 1.950000 0.000006 25 255 205
-0.008260 1.950000 0.007328 25 255 205
-0.016476 1.950000 -0.006004 25 255 205
-0.000333 1.950000 0.000702 25 255 205
0.002617 1.950000 0.001401 25 255 205
0.004453 1.950000 -0.000469 25 255 205
-0.005591 1.950000 -0.004751 25 255 205
-0.004094 1.950000 0.007675 25 255 205
0.015992 1.950000 -0.035549 25 255 205
0.011352 1.950000 -0.003713 25 255 205
-0.025772 1.950000 -0.028271 25 255 205
0.003981 1.950000 -0.009401 25 255 205
0.008071 1.950000 -0.020991 25 255 205
-0.016368 1.950000 0.016624 25 255 205
-0.004089 1.950000 -0.019523 25 255 205
-0.012978 1.950000 0.002747 25 255 205
0.004727 1.950000 -0.015050 25 255 205
0.032778 1.950000 0.016295 25 255 205
0.011664 1.950000 0.004260 25 255 205
0.008586 1.950000 -0.022100 25 255 205
-0.027136 1.950000 0.002087 25 255 205
0.001953 1.950000 -0.024858 25 255 205
-0.022084 1.950000 0.009764 25 255 205
-0.021295 1.950000 0.004090 25 255 205
0.033132 1.950000 -0.030469 25 255 205
-0.010528 1.950000 -0.005450 25 255 205
-0.003001 1.950000 0.013667 25 255 205
-0.001772 1.950000 0.016140 25 255 205
-0.007469 1.950000 -0.042554 25 255 205
0.015092 1.950000 -0.015932 25 255 205
-0.008744 1.950000 -0.016533 25 255 205
0.000446 1.950000 0.014610 25 255 205
-0.017361 1.950000 -0.009536 25 255 205
-0.011755 1.950000 -0.006168 25 255 205
-0.007242 1.950000 -0.018931 25 255 205
-0.003104 1.950000 0.010328 25 255 205
0.010654 1.950000 -0.000498 25 255 205
-0.016765 1.950000 -0.020267 25 255 205
-0.020038 1.950000 -0.018445 25 255 205
0.011634 1.950000 -0.014173 25 255 205
-0.006316 1.950000 0.035736 25 255 205
0.002134 1.950000 0.002782 25 255 205
-0.007791 1.950000 0.019572 25 255 205
-0.000230 1.950000 -0.020011 25 255 205
-0.004971 1.950000 0.013793 25 255 205
0.019681 1.950000 0.011024 25 255 205
0.009969 1.950000 0.031524 25 255 205
0.002625 1.950000 0.019899 25 255 205
0.012684 1.950000 -0.006792 25 255 205
-0.007772 1.950000 0.004910 25 255 205
-0.011891 1.950000 -0.038458 25 255 205
0.006573 1.950000 0.027170 25 255 205
0.022298 1.950000 -0.000016 25 255 205
-0.007854 1.950000 -0.012943 25 255 205
-0.022188 1.950000 0.013671 25 255 205
-0.012144 1.950000 -0.016595 25 255 205
0.019045 1.950000 -0.008627 25 255 205
0.004256 1.950000 -0.014957 25 255 205
-0.005797 1.950000 0.022887 25 255 205
-0.017076 1.950000 -0.009284 25 255 205
0.010122 1.950000 -0.001323 25 255 205
0.005732 1.950000 0.011704 25 255 205
-0.014417 1.950000 -0.006033 25 255 205
-0.018714 1.950000 -0.019099 25 255 205
-0.022031 1.950000 -0.005634 25 255 205
0.005285 1.950000 -0.002911 25 255 205
0.004289 1.950000 0.013709 25 255 205
-0.005317 1.950000 -0.024187 25 255 205
0.006860 1.950000 0.005793 25 255 205
0.014613 1.950000 0.003797 25 255 205
0.017981 1.950000 -0.007656 25 255 205
0.009656 1.950000 0.015527 25 255 205
0.018902 1.950000 0.017448 25 255 205
-0.019631 1.950000 -0.045450 25 255 205
0.007370 1.950000 0.017362 25 255 205
0.017526 1.950000 0.004695 25 255 205
0.003735 1.950000 -0.022888 25 255 205
0.004258 1.950000 0.001830 25 255 205
0.019571 1.950000 -0.013011 25 255 205
-0.009460 1.950000 -0.014919 25 255 205
-0.015234 1.950000 -0.018588 25 255 205
-0.006647 1.950000 -0.001298 25 255 205
-0.007882 1.950000 0.028571 25 255 205
-0.002745 1.950000 -0.016995 25 255 205
-0.003797 1.950000 -0.040587 25 255 205
0.002564 1.950000 -0.028047 25 255 205
0.028401 1.950000 -0.001547 25 255 205
0.004422 1.950000 -0.018971 25 255 205
-0.025450 1.950000 0.015254 25 255 205
-0.017949 1.950000 0.005582 25 255 205
0.041916 1.950000 0.025422 25 255 205
0.027653 1.950000 0.021705 25 255 205
0.002543 1.950000 0.006331 25 255 205
0.006581 1.950000 -0.022720 25 255 205
-0.002655 1.950000 -0.009770 25 255 205
-0.007351 1.950000 -0.029528 25 255 205
-0.019996 1.950000 0.017191 25 255 205
-0.010702 1.950000 -0.006963 25 255 205
-0.021312 1.950000 0.017790 25 255 205
-0.003097 1.950000 0.027897 25 255 205
0.028494 1.950000 -0.003636 25 255 205
-0.019041 1.950000 0.006782 25 255 205
0.009433 1.950000 -0.003561 25 255 205
-0.014238 1.950000 -0.020854 25 255 205
0.025955 1.950000 -0.004752 25 255 205
0.009499 1.950000 -0.005336 25 255 205
-0.015580 1.950000 -0.040026 25 255 205
0.007620 1.950000 0.001476 25 255 205
-0.003844 1.950000 0.016846 25 255 205
-0.032515 1.950000 0.012807 25 255 205
0.010094 1.950000 0.000619 25 255 205
0.008241 1.950000 0.000794 25 255 205
0.013252 1.950000 -0.016163 25 255 205
0.023184 1.950000 -0.000790 25 255 205
0.005694 1.950000 0.008346 25 255 205
0.013981 1.950000 -0.016165 25 255 205
-0.019430 1.950000 -0.007648 25 255 205
0.019397 1.950000 0.020563 25 255 205
-0.002485 1.950000 -0.004563 25 255 205
0.029475 1.950000 -0.016262 25 255 205
-0.004608 1.950000 -0.004224 25 255 205
0.000419 1.950000 -0.010104 25 255 205
0.000193 1.950000 -0.007471 25 255 205
0.019490 1.950000 -0.008626 25 255 205
-0.001121 1.950000 0.042920 25 255 205
0.019224 1.950000 -0.000672 25 255 205
-0.019583 1.950000 -0.004188 25 255 205
0.004332 1.950000 -0.026839 25 255 205
0.016334 1.950000 0.014067 25 255 205
0.000922 1.950000 -0.017695 25 255 205
-0.001691 1.950000 0.003304 25 255 205
0.010944 1.950000 0.024735 25 255 205
0.000200 1.950000 -0.002192 25 255 205
-0.001432 1.950000 -0.011957 25 255 205
-0.011626 1.950000 -0.021223 25 255 205
0.004173 1.950000 0.013771 25 255 205
0.002654 1.950000 -0.024868 25 255 205
0.005777 1.950000 0.008779 25 255 205
-0.012110 1.950000 -0.005489 25 255 205
0.000561 1.950000 -0.001966 25 255 205
0.004704 1.950000 -0.007887 25 255 205
0.027568 1.950000 0.012304 25 255 205
-0.013107 1.950000 -0.010171 25 255 205
0.011732 1.950000 -0.023900 25 255 205
0.007848 1.950000 0.004598 25 255 205
0.006057 1.950000 0.010159 25 255 205
-0.007032 1.950000 0.013079 25 255 205
0.011937 1.950000 0.015568 25 255 205
0.015349 1.950000 -0.007495 25 255 205
-0.005582 1.950000 -0.005167 25 255 205
-0.005500 1.950000 -0.027478 25 255 205
-0.006349 1.950000 -0.005040 25 255 205
-0.010334 1.950000 0.021797 25 255 205
-0.001407 1.950000 -0.003450 25 255 205
0.018128 1.950000 0.006078 25 255 205
-0.020953 1.950000 -0.011454 25 255 205
-0.016534 1.950000 -0.011823 25 255 205
-0.007143 1.950000 -0.017612 25 255 205
-0.000429 1.950000 0.018684 25 255 205
0.006856 1.950000 0.001482 25 255 205
0.012349 1.950000 -0.006756 25 255 205
0.015233 1.950000 -0.012570 25 255 205
-0.017416 1.950000 -0.000929 25 255 205
-0.010729 1.950000 0.009609 25 255 205
0.016726 1.950000 -0.008469 25 255 205
-0.019236 1.950000 0.013525 25 255 205
-0.000153 1.950000 0.031961 25 255 205
0.009831 1.950000 0.006693 25 255 205
-0.043202 1.950000 -0.007607 25 255 205
-0.001491 1.950000 0.033317 25 255 205
-0.000655 1.950000 0.008396 25 255 205
-0.004163 1.950000 -0.008054 25 255 205
-0.006714 1.950000 -0.011759 25 255 205
0.013350 1.950000 0.023039 25 255 205
0.017191 1.950000 -0.004429 25 255 205
0.018890 1.950000 0.015863 25 255 205
0.002043 1.950000 0.017343 25 255 205
-0.012911 1.950000 0.012003 25 255 205
0.002066 1.950000 0.006255 25 255 205
0.022187 1.950000 0.015366 25 255 205
0.006134 1.950000 -0.016437 25 255 205
0.017406 1.950000 0.004672 25 255 205
0.011278 1.950000 0.011689 25 255 205
0.005944 1.950000 0.018992 25 255 205
-0.030564 1.950000 -0.016065 25 255 205
0.007004 1.950000 0.007305 25 255 205
-0.011960 1.950000 0.003989 25 255 205
0.012729 1.950000 0.005973 25 255 205
0.006629 1.950000 -0.017845 25 255 205
-0.024219 1.950000 0.002541 25 255 205
0.013594 1.950000 0.024406 25 255 205
-0.009723 1.950000 0.006175 25 255 205
0.021082 1.950000 0.008104 25 255 205
0.021390 1.950000 -0.043278 25 255 205
-0.028969 1.950000 -0.007529 25 255 205
-0.046979 1.950000 -0.029328 25 255 205
-0.014083 1.950000 0.011707 25 255 205
0.000211 1.950000 -0.013518 25 255 205
0.000396 1.950000 0.049821 25 255 205
0.018828 1.950000 0.009229 25 255 205
-0.018515 1.950000 0.018363 25 255 205
0.003287 1.950000 -0.001305 25 255 205
0.021884 1.950000 0.012183 25 255 205
-0.031185 1.950000 0.010101 25 255 205
-0.028155 1.950000 -0.001491 25 255 205
0.021944 1.950000 0.017896 25 255 205
0.015823 1.950000 0.002583 25 255 205
0.027091 1.950000 0.006496 25 255 205
0.006395 1.950000 0.022389 25 255 205
-0.006516 1.950000 -0.004676 25 255 205
-0.001273 1.950000 -0.025462 25 255 205
0.011928 1.950000 -0.029904 25 255 205
-0.010370 1.950000 0.009500 25 255 205
0.002488 1.950000 0.001118 25 255 205
-0.017336 1.950000 0.001984 25 255 205
0.004641 1.950000 -0.040715 25 255 205
0.015999 1.950000 -0.003445 25 255 205
-0.006420 1.950000 0.017398 25 255 205
0.014271 1.950000 -0.024353 25 255 205
-0.002441 1.950000 0.000408 25 255 205
0.011481 1.950000 0.021173 25 255 205
-0.000751 1.950000 -0.019724 25 255 205
-0.005310 1.950000 -0.017955 25 255 205
0.006307 1.950000 0.016299 25 255 205
-0.004100 1.950000 -0.038213 25 255 205
-0.026758 1.950000 -0.020006 25 255 205
-0.001966 1.950000 0.007726 25 255 205
-0.008184 1.950000 -0.022285 25 255 205
0.031471 1.950000 0.001609 25 255 205
0.004078 1.950000 -0.016049 25 255 205
0.004267 1.950000 -0.030893 25 255 205
0.011178 1.950000 -0.023863 25 255 205
-0.003783 1.950000 0.001826 25 255 205
-0.011715 1.950000 0.006021 25 255 205
-0.010347 1.950000 0.007208 25 255 205
0.008107 1.950000 -0.012709 25 255 205
-0.006399 1.950000 -0.026231 25 255 205
0.035017 1.950000 -0.024520 25 255 205
0.011883 1.950000 -0.003424 25 255 205
-0.019169 1.950000 -0.016142 25 255 205
-0.021330 1.950000 -0.001024 25 255 205
-0.009145 1.950000 0.005024 25 255 205
-0.000722 1.950000 -0.019718 25 255 205
0.005757 1.950000 0.000046 25 255 205
-0.007085 1.950000 -0.005010 25 255 205
-0.015121 1.950000 0.006934 25 255 205
0.023908 1.950000 -0.025088 25 255 205
-0.003426 1.950000 0.037132 25 255 205
-0.009108 1.950000 -0.051146 25 255 205
0.034375 1.950000 -0.006691 25 255 205
0.015332 1.950000 0.004732 25 255 205
-0.027014 1.950000 -0.024651 25 255 205
-0.015730 1.950000 -0.008539 25 255 205
0.036652 1.950000 -0.003087 25 255 205
-0.008105 1.950000 -0.023235 25 255 205
0.011456 1.950000 -0.005478 25 255 205
-0.000035 1.950000 -0.009303 25 255 205
-0.013401 1.950000 -0.001984 25 255 205
-0.025752 1.950000 -0.000083 25 255 205
0.028794 1.950000 0.004715 25 255 205
0.011785 1.950000 0.017985 25 255 205
0.007799 1.950000 -0.021296 25 255 205
0.019252 1.950000 0.027813 25 255 205
0.003440 1.950000 0.006945 25 255 205
-0.007419 1.950000 0.011105 25 255 205
0.001619 1.950000 0.000115 25 255 205
-0.003791 1.950000 -0.005026 25 255 205
-0.018627 1.950000 -0.016373 25 255 205
0.005663 1.950000 -0.020199 25 255 205
0.000796 1.950000 0.001095 25 255 205
-0.012450 1.950000 0.004964 25 255 205
0.002879 1.950000 0.016198 25 255 205
0.006447 1.950000 -0.001817 25 255 205
0.018686 1.950000 0.000601 25 255 205
-0.000056 1.950000 0.004705 25 255 205
-0.007875 1.950000 0.010264 25 255 205
0.018853 1.950000 -0.014957 25 255 205
0.006211 1.950000 0.000384 25 255 205
0.004800 1.950000 -0.017971 25 255 205
0.012376 1.950000 -0.005473 25 255 205
0.004692 1.950000 -0.006693 25 255 205
-0.023727 1.950000 -0.009830 25 255 205
-0.010445 1.950000 0.009138 25 255 205
0.000932 1.950000 -0.001783 25 255 205
0.001582 1.950000 0.014045 25 255 205
0.011247 1.950000 -0.009490 25 255 205
0.006472 1.950000 -0.007955 25 255 205
0.015546 1.950000 -0.006737 25 255 205
-0.029534 1.950000 -0.021209 25 255 205
0.004723 1.950000 -0.004505 25 255 205
0.027482 1.950000 -0.021649 25 255 205
0.001179 1.950000 0.002581 25 255 205
0.022282 1.950000 -0.030326 25 255 205
0.022369 1.950000 0.006986 25 255 205
-0.008393 1.950000 -0.000935 25 255 205
0.000603 2.100000 0.020440 25 255 254
0.026882 2.100000 0.005522 25 255 254
0.001866 2.100000 -0.010755 25 255 254
0.009490 2.100000 -0.001259 25 255 254
-0.042901 2.100000 0.017561 25 255 254
0.005533 2.100000 -0.019340 25 255 254
-0.005685 2.100000 -0.005726 25 255 254
0.005105 2.100000 0.001442 25 255 254
-0.025525 2.100000 0.008946 25 255 254
0.002744 2.100000 0.012082 25 255 254
0.021400 2.100000 -0.004975 25 255 254
-0.041006 2.100000 0.022487 25 255 254
-0.022990 2.100000 0.006398 25 255 254
0.031620 2.100000 -0.001873 25 255 254
0.026229 2.100000 -0.000417 25 255 254
0.002893 2.100000 0.011504 25 255 254
0.040668 2.100000 0.000046 25 255 254
-0.009025 2.100000 -0.005950 25 255 254
0.007447 2.100000 -0.010935 25 255 254
-0.011522 2.100000 0.005687 25 255 254
0.020565 2.100000 -0.002079 25 255 254
0.001733 2.100000 -0.009733 25 255 254
-0.021715 2.100000 0.007337 25 255 254
-0.005258 2.100000 0.001648 25 255 254
0.014005 2.100000 -0.000419 25 255 254
0.007821 2.100000 -0.008355 25 255 254
-0.043930 2.100000 0.005929 25 255 254
-0.004623 2.100000 -0.010527 25 255 254
-0.028329 2.100000 0.002423 25 255 254
-0.002599 2.100000 0.013375 25 255 254
0.022247 2.100000 -0.001815 25 255 254
0.024306 2.100000 -0.020232 25 255 254
-0.017313 2.100000 -0.007413 25 255 254
0.003008 2.100000 -0.004094 25 255 254
0.011092 2.100000 -0.018336 25 255 254
-0.002025 2.100000 -0.011329 25 255 254
-0.012712 2.100000 -0.010462 25 255 254
0.006625 2.100000 -0.015886 25 255 254
-0.006295 2.100000 -0.025859 25 255 254
-0.018643 2.100000 -0.020902 25 255 254
-0.021240 2.100000 -0.014265 25 255 254
-0.048919 2.100000 -0.008271 25 255 254
-0.002477 2.100000 0.017125 25 255 254
0.011967 2.100000 0.018815 25 255 254
-0.027069 2.100000 0.010135 25 255 254
0.000715 2.100000 -0.000928 25 255 254
-0.008140 2.100000 -0.014147 25 255 254
0.031337 2.100000 0.007307 25 255 254
0.002161 2.100000 0.023409 25 255 254
0.003393 2.100000 -0.017800 25 255 254
0.011789 2.100000 -0.005560 25 255 254
-0.000555 2.100000 0.003552 25 255 254
-0.005092 2.100000 -0.018743 25 255 254
0.023360 2.100000 -0.026738 25 255 254
0.009890 2.100000 -0.003912 25 255 254
0.014180 2.100000 0.020494 25 255 254
0.025739 2.100000 -0.016478 25 255 254
-0.018612 2.100000 0.015581 25 255 254
0.007552 2.100000 0.013005 25 255 254
-0.001478 2.100000 0.010173 25 255 254
-0.006061 2.100000 0.022489 25 255 254
0.019594 2.100000 -0.033646 25 255 254
-0.032932 2.100000 -0.002733 25 255 254
0.006140 2.100000 0.031940 25 255 254
-0.035150 2.100000 -0.008776 25 255 254
0.002122 2.100000 0.017690 25 255 254
0.006591 2.100000 -0.018448 25 255 254
-0.036744 2.100000 -0.002432 25 255 254
0.010568 2.100000 0.005499 25 255 254
-0.010893 2.100000 -0.012285 25 255 254
0.003659 2.100000 0.021385 25 255 254
-0.026333 2.100000 -0.010237 25 255 254
0.002502 2.100000 0.022952 25 255 254
0.008092 2.100000 -0.033226 25 255 254
-0.018892 2.100000 -0.028068 25 255 254
-0.015937 2.100000 -0.002492 25 255 254
-0.043589 2.100000 0.029743 25 255 254
-0.004294 2.100000 -0.001948 25 255 254
-0.024718 2.100000 0.002967 25 255 254
0.001222 2.100000 0.004758 25 255 254
0.011038 2.100000 0.011225 25 255 254
0.048318 2.100000 -0.004804 25 255 254
-0.005715 2.100000 -0.010425 25 255 254
0.017745 2.100000 0.001135 25 255 254
-0.018903 2.100000 -0.017421 25 255 254
-0.005248 2.100000 0.021765 25 255 254
-0.019870 2.100000 -0.019319 25 255 254
0.025477 2.100000 -0.012748 25 255 254
-0.041923 2.100000 -0.011532 25 255 254
-0.004160 2.100000 0.004850 25 255 254
-0.024982 2.100000 0.018022 25 255 254
0.014933 2.100000 0.005613 25 255 254
0.004096 2.100000 -0.014538 25 255 254
0.009765 2.100000 0.008951 25 255 254
0.009510 2.100000 0.029865 25 255 254
-0.026459 2.100000 0.001228 25 255 254
-0.026697 2.100000 0.018716 25 255 254
0.011963 2.100000 -0.002590 25 255 254
-0.003875 2.100000 -0.009011 25 255 254
0.016449 2.100000 0.016199 25 255 254
-0.008508 2.100000 0.011448 25 255 254
-0.001531 2.100000 0.009919 25 255 254
0.005370 2.100000 0.056542 25 255 254
-0.019338 2.100000 -0.016278 25 255 254
-0.018565 2.100000 0.004750 25 255 254
0.004537 2.100000 0.008119 25 255 254
-0.000756 2.100000 -0.009961 25 255 254
0.023303 2.100000 -0.001144 25 255 254
-0.022235 2.100000 -0.007182 25 255 254
0.013214 2.100000 -0.005387 25 255 254
0.009170 2.100000 0.013821 25 255 254
-0.001053 2.100000 0.004173 25 255 254
-0.014086 2.100000 0.003381 25 255 254
-0.020831 2.100000 -0.007883 25 255 254
0.009083 2.100000 0.005429 25 255 254
-0.001352 2.100000 0.015880 25 255 254
-0.011069 2.100000 0.003272 25 255 254
-0.003881 2.100000 -0.009100 25 255 254
-0.023197 2.100000 0.023164 25 255 254
0.016547 2.100000 0.007255 25 255 254
-0.040666 2.100000 -0.004202 25 255 254
-0.016071 2.100000 -0.010996 25 255 254
-0.001370 2.100000 0.010502 25 255 254
-0.009902 2.100000 0.001453 25 255 254
0.001657 2.100000 0.015068 25 255 254
0.025634 2.100000 -0.021709 25 255 254
-0.031153 2.100000 -0.016254 25 255 254
-0.014528 2.100000 0.000271 25 255 254
0.001640 2.100000 0.003259 25 255 254
0.002266 2.100000 0.004703 25 255 254
0.002315 2.100000 0.011066 25 255 254
0.018040 2.100000 -0.019686 25 255 254
0.013434 2.100000 0.020959 25 255 254
0.011564 2.100000 0.002874 25 255 254
-0.011710 2.100000 0.028256 25 255 254
0.003364 2.100000 -0.013922 25 255 254
-0.019142 2.100000 0.033249 25 255 254
-0.029379 2.100000 0.020049 25 255 254
-0.023558 2.100000 0.015634 25 255 254
0.002970 2.100000 0.025606 25 255 254
0.011924 2.100000 0.008840 25 255 254
0.012817 2.100000 -0.051812 25 255 254
0.021103 2.100000 -0.008200 25 255 254
-0.000303 2.100000 -0.008399 25 255 254
0.002509 2.100000 0.017049 25 255 254
-0.005421 2.100000 -0.004566 25 255 254
0.015429 2.100000 -0.010947 25 255 254
0.018419 2.100000 0.029664 25 255 254
-0.006963 2.100000 0.025250 25 255 254
-0.008188 2.100000 -0.019544 25 255 254
0.020178 2.100000 0.014528 25 255 254
0.008415 2.100000 -0.000306 25 255 254
-0.007236 2.100000 -0.038348 25 255 254
0.004654 2.100000 0.032939 25 255 254
-0.032330 2.100000 -0.013331 25 255 254
-0.006988 2.100000 -0.007862 25 255 254
-0.023735 2.100000 0.014693 25 255 254
0.039297 2.100000 -0.011151 25 255 254
-0.002956 2.100000 -0.016831 25 255 254
0.002228 2.100000 0.006069 25 255 254
0.036537 2.100000 0.013293 25 255 254
0.000809 2.100000 -0.016785 25 255 254
-0.009563 2.100000 -0.015158 25 255 254
-0.006550 2.100000 -0.008318 25 255 254
0.013515 2.100000 -0.012964 25 255 254
0.007865 2.100000 -0.004064 25 255 254
-0.011915 2.100000 0.019181 25 255 254
0.011872 2.100000 0.014101 25 255 254
0.014716 2.100000 -0.021436 25 255 254
0.046189 2.100000 -0.022711 25 255 254
0.001174 2.100000 0.009356 25 255 254
-0.026332 2.100000 0.017896 25 255 254
-0.009723 2.100000 0.041457 25 255 254
-0.005617 2.100000 0.003724 25 255 254
0.006898 2.100000 -0.009603 25 255 254
-0.012746 2.100000 0.005358 25 255 254
-0.036287 2.100000 -0.005559 25 255 254
0.010374 2.100000 0.021556 25 255 254
-0.022442 2.100000 0.023946 25 255 254
-0.005814 2.100000 0.018955 25 255 254
0.012364 2.100000 0.025978 25 255 254
-0.013985 2.100000 -0.023660 25 255 254
-0.050417 2.100000 0.014850 25 255 254
-0.009175 2.100000 -0.000980 25 255 254
-0.014025 2.100000 -0.001600 25 255 254
-0.019599 2.100000 0.015091 25 255 254
0.015766 2.100000 -0.021682 25 255 254
0.005701 2.100000 0.031283 25 255 254
-0.022786 2.100000 0.004144 25 255 254
0.012755 2.100000 0.021432 25 255 254
-0.007331 2.100000 0.008316 25 255 254
-0.026880 2.100000 -0.016496 25 255 254
-0.012971 2.100000 -0.000083 25 255 254
-0.033595 2.100000 0.016716 25 255 254
-0.012587 2.100000 0.013167 25 255 254
0.013874 2.100000 -0.013524 25 255 254
-0.011509 2.100000 0.018193 25 255 254
0.040213 2.100000 -0.000947 25 255 254
-0.004280 2.100000 0.013924 25 255 254
-0.027201 2.100000 0.004907 25 255 254
0.019963 2.100000 0.017157 25 255 254
-0.018412 2.100000 0.003837 25 255 254
-0.013118 2.100000 0.025250 25 255 254
0.031441 2.100000 -0.010705 25 255 254
0.005705 2.100000 -0.008637 25 255 254
-0.011579 2.100000 0.008827 25 255 254
0.036042 2.100000 0.037456 25 255 254
0.028785 2.100000 -0.006549 25 255 254
0.001103 2.100000 -0.007625 25 255 254
-0.009211 2.100000 -0.010249 25 255 254
-0.005848 2.100000 -0.023761 25 255 254
-0.001504 2.100000 0.007233 25 255 254
0.035289 2.100000 -0.027375 25 255 254
0.013233 2.100000 0.010173 25 255 254
-0.019361 2.100000 -0.007923 25 255 254
-0.014000 2.100000 0.012889 25 255 254
0.006781 2.100000 -0.017756 25 255 254
-0.013627 2.100000 0.012720 25 255 254
0.015430 2.100000 -0.010131 25 255 254
-0.025685 2.100000 -0.012431 25 255 254
-0.033680 2.100000 0.000502 25 255 254
0.012595 2.100000 0.003713 25 255 254
0.019937 2.100000 -0.015337 25 255 254
-0.000570 2.100000 -0.014244 25 255 254
0.024611 2.100000 0.002679 25 255 254
-0.016220 2.100000 -0.006824 25 255 254
0.007355 2.100000 -0.005299 25 255 254
-0.009055 2.100000 0.008686 25 255 254
0.002069 2.100000 -0.003841 25 255 254
-0.006995 2.100000 0.017858 25 255 254
0.015821 2.100000 -0.015623 25 255 254
0.006689 2.100000 0.044937 25 255 254
0.005637 2.100000 -0.002231 25 255 254
0.005301 2.100000 0.012936 25 255 254
0.016448 2.100000 -0.003226 25 255 254
-0.012072 2.100000 0.016478 25 255 254
0.001343 2.100000 0.001066 25 255 254
0.001040 2.100000 -0.015827 25 255 254
-0.017742 2.100000 -0.017115 25 255 254
-0.018378 2.100000 0.033046 25 255 254
-0.030302 2.100000 -0.021823 25 255 254
-0.025496 2.100000 -0.010255 25 255 254
-0.002891 2.100000 -0.001995 25 255 254
0.016637 2.100000 -0.003044 25 255 254
0.011123 2.100000 -0.004673 25 255 254
0.003162 2.100000 -0.009483 25 255 254
-0.027953 2.100000 0.004096 25 255 254
0.014766 2.100000 -0.000526 25 255 254
0.020238 2.100000 -0.019008 25 255 254
-0.005341 2.100000 -0.007327 25 255 254
0.014627 2.100000 -0.004166 25 255 254
-0.003352 2.100000 0.010803 25 255 254
-0.005979 2.100000 -0.010308 25 255 254
0.000495 2.100000 0.012625 25 255 254
0.012222 2.100000 -0.000814 25 255 254
-0.030720 2.100000 0.033525 25 255 254
-0.004107 2.100000 -0.018968 25 255 254
-0.013095 2.100000 -0.010033 25 255 254
0.015575 2.100000 0.027740 25 255 254
-0.029685 2.100000 0.009942 25 255 254
0.032134 2.100000 -0.021901 25 255 254
0.001584 2.100000 0.015999 25 255 254
-0.012641 2.100000 -0.008003 25 255 254
-0.012640 2.100000 -0.016007 25 255 254
-0.020642 2.100000 0.035814 25 255 254
-0.019489 2.100000 0.014829 25 255 254
-0.021548 2.100000 0.007290 25 255 254
0.004360 2.100000 -0.006732 25 255 254
0.017690 2.100000 0.033961 25 255 254
0.037742 2.100000 0.008877 25 255 254
-0.023107 2.100000 0.008870 25 255 254
-0.017954 2.100000 0.020677 25 255 254
0.011466 2.100000 -0.009031 25 255 254
0.004078 2.100000 -0.006610 25 255 254
0.006123 2.100000 -0.010410 25 255 254
-0.027674 2.100000 0.011988 25 255 254
0.006505 2.100000 -0.012531 25 255 254
0.005477 2.100000 -0.011265 25 255 254
-0.010947 2.100000 0.009685 25 255 254
-0.000674 2.100000 0.002583 25 255 254
0.026755 2.100000 -0.001677 25 255 254
-0.013919 2.100000 -0.021506 25 255 254
-0.015014 2.100000 0.005173 25 255 254
-0.007714 2.100000 -0.029507 25 255 254
0.019615 2.100000 0.024216 25 255 254
0.013365 2.100000 -0.027744 25 255 254
-0.004935 2.100000 -0.011717 25 255 254
-0.032619 2.100000 0.026665 25 255 254
0.011770 2.100000 -0.011163 25 255 254
-0.015597 2.100000 0.030705 25 255 254
0.002976 2.100000 0.016101 25 255 254
0.020328 2.100000 -0.008508 25 255 254
-0.009553 2.100000 0.013483 25 255 254
-0.015227 2.100000 0.029621 25 255 254
-0.006463 2.100000 -0.011540 25 255 254
-0.057464 2.100000 0.029986 25 255 254
0.012098 2.100000 0.013289 25 255 254
-0.033907 2.100000 0.014550 25 255 254
-0.025997 2.100000 0.000684 25 255 254
0.008127 2.100000 -0.009284 25 255 254
0.020113 2.100000 -0.013497 25 255 254
0.001275 2.100000 0.009163 25 255 254
0.027146 2.100000 0.013684 25 255 254
-0.016199 2.100000 -0.001595 25 255 254
0.041776 2.100000 -0.019744 25 255 254
-0.014283 2.100000 0.019939 25 255 254
0.014516 2.100000 0.022965 25 255 254
-0.021349 2.100000 0.024739 25 255 254
-0.015093 2.100000 0.021611 25 255 254
0.015321 2.100000 -0.022878 25 255 254
-0.021509 2.100000 -0.004707 25 255 254
0.004545 2.100000 0.022074 25 255 254
-0.004620 2.100000 -0.015422 25 255 254
-0.027613 2.100000 -0.004599 25 255 254
0.006126 2.100000 0.027459 25 255 254
0.006091 2.100000 -0.003222 25 255 254
-0.007973 2.100000 -0.018219 25 255 254
-0.021438 2.100000 0.024780 25 255 254
0.017987 2.100000 -0.023331 25 255 254
0.012897 2.100000 -0.015510 25 255 254
-0.003068 2.100000 0.003102 25 255 254
0.004820 2.100000 -0.016321 25 255 254
-0.000084 2.100000 0.003140 25 255 254
0.002069 2.100000 -0.032175 25 255 254
0.020072 2.100000 -0.010199 25 255 254
-0.008244 2.100000 -0.001945 25 255 254
0.001623 2.100000 -0.026245 25 255 254
-0.023063 2.100000 0.014795 25 255 254
0.000950 2.100000 -0.003772 25 255 254
-0.016397 2.100000 0.001375 25 255 254
-0.025411 2.100000 0.004675 25 255 254
-0.003820 2.100000 -0.006761 25 255 254
-0.002716 2.100000 0.013482 25 255 254
-0.005142 2.100000 0.007540 25 255 254
-0.011990 2.100000 0.027780 25 255 254
-0.020682 2.100000 -0.008253 25 255 254
0.001666 2.100000 0.001031 25 255 254
-0.020520 2.100000 -0.007241 25 255 254
0.027242 2.100000 0.002895 25 255 254
-0.023235 2.100000 0.003039 25 255 254
-0.013147 2.100000 -0.007414 25 255 254
-0.000607 2.100000 0.001307 25 255 254
0.019753 2.100000 -0.029507 25 255 254
-0.025327 2.100000 0.026662 25 255 254
0.006087 2.100000 0.000334 25 255 254
0.009206 2.100000 -0.022285 25 255 254
0.033644 2.100000 -0.001901 25 255 254
-0.014704 2.100000 -0.012565 25 255 254
-0.028488 2.100000 0.003126 25 255 254
0.003366 2.100000 0.000634 25 255 254
-0.002558 2.100000 -0.017067 25 255 254
0.004752 2.100000 -0.011375 25 255 254
-0.011260 2.100000 0.044056 25 255 254
-0.013340 2.100000 -0.015608 25 255 254
-0.011343 2.100000 -0.013961 25 255 254
-0.013083 2.100000 0.017214 25 255 254
-0.007640 2.100000 -0.001402 25 255 254
-0.018488 2.100000 0.021828 25 255 254
0.026774 2.100000 0.020247 25 255 254
-0.012549 2.100000 0.001130 25 255 254
-0.033813 2.100000 0.020131 25 255 254
-0.005683 2.100000 0.008991 25 255 254
0.017076 2.100000 -0.023944 25 255 254
-0.015290 2.100000 0.000334 25 255 254
-0.004030 2.100000 0.012554 25 255 254
-0.002811 2.100000 0.014643 25 255 254
-0.004202 2.100000 0.002739 25 255 254
0.014535 2.100000 -0.012809 25 255 254
0.033119 2.100000 0.017666 25 255 254
0.015111 2.100000 -0.007577 25 255 254
-0.033775 2.100000 0.000703 25 255 254
0.009091 2.100000 -0.011074 25 255 254
0.019875 2.100000 -0.019824 25 255 254
0.023626 2.100000 -0.030221 25 255 254
-0.016234 2.100000 0.015131 25 255 254
-0.018369 2.100000 -0.014220 25 255 254
-0.000227 2.100000 0.001061 25 255 254
-0.003130 2.100000 -0.022530 25 255 254
0.001851 2.100000 0.012229 25 255 254
0.006098 2.100000 0.010060 25 255 254
0.002985 2.100000 0.014131 25 255 254
-0.010905 2.100000 -0.000951 25 255 254
0.004746 2.100000 -0.012812 25 255 254
-0.000391 2.100000 0.002088 25 255 254
-0.007601 2.100000 0.016017 25 255 254
0.001845 2.100000 0.010844 25 255 254
-0.022792 2.100000 -0.029759 25 255 254
-0.012332 2.100000 0.003856 25 255 254
0.017217 2.100000 -0.011630 25 255 254
0.009897 2.100000 -0.008766 25 255 254
0.029731 2.100000 -0.021072 25 255 254
0.041950 2.100000 0.011098 25 255 254
0.022007 2.100000 -0.004823 25 255 254
0.019930 2.100000 -0.010350 25 255 254
0.020499 2.100000 0.007944 25 255 254
-0.008085 2.100000 0.031045 25 255 254
0.012753 2.100000 -0.005456 25 255 254
0.013651 2.100000 -0.012509 25 255 254
-0.011460 2.100000 0.001291 25 255 254
0.018932 2.100000 -0.011672 25 255 254
0.002932 2.100000 0.004372 25 255 254
-0.037454 2.100000 -0.012168 25 255 254
-0.002640 2.100000 0.010056 25 255 254
0.015333 2.100000 0.000912 25 255 254
-0.010560 2.100000 0.013534 25 255 254
-0.044144 2.100000 0.013345 25 255 254
0.014797 2.100000 -0.006911 25 255 254
0.028670 2.100000 -0.008263 25 255 254
0.000214 2.100000 0.021499 25 255 254
0.010878 2.100000 -0.011889 25 255 254
-0.007404 2.250000 0.010849 25 205 255
0.013731 2.250000 0.015123 25 205 255
0.005810 2.250000 0.014285 25 205 255
-0.023023 2.250000 -0.001849 25 205 255
0.002216 2.250000 -0.009052 25 205 255
-0.004972 2.250000 -0.000096 25 205 255
0.009776 2.250000 0.019480 25 205 255
-0.004051 2.250000 0.018310 25 205 255
-0.010770 2.250000 0.013605 25 205 255
-0.001408 2.250000 0.013041 25 205 255
-0.004577 2.250000 -0.013715 25 205 255
-0.028143 2.250000 -0.014868 25 205 255
-0.015170 2.250000 -0.015948 25 205 255
-0.011605 2.250000 0.003910 25 205 255
-0.016260 2.250000 0.006611 25 205 255
-0.008496 2.250000 -0.011970 25 205 255
0.022674 2.250000 0.010796 25 205 255
-0.016080 2.250000 -0.007906 25 205 255
-0.046589 2.250000 0.019683 25 205 255
-0.002600 2.250000 0.001772 25 205 255
-0.012537 2.250000 0.006550 25 205 255
-0.021400 2.250000 0.003881 25 205 255
-0.018556 2.250000 -0.015432 25 205 255
0.026801 2.250000 0.021209 25 205 255
-0.013773 2.250000 -0.017900 25 205 255
-0.038939 2.250000 0.006344 25 205 255
-0.015261 2.250000 0.013065 25 205 255
0.006108 2.250000 -0.008854 25 205 255
0.018512 2.250000 0.027807 25 205 255
-0.006025 2.250000 0.009189 25 205 255
-0.010477 2.250000 0.002803 25 205 255
-0.011807 2.250000 0.019188 25 205 255
-0.019454 2.250000 0.007932 25 205 255
-0.005733 2.250000 -0.018551 25 205 255
-0.006785 2.250000 -0.000276 25 205 255
0.007714 2.250000 -0.029251 25 205 255
0.043472 2.250000 0.009487 25 205 255
0.007317 2.250000 0.036300 25 205 255
0.013862 2.250000 0.020262 25 205 255
0.007055 2.250000 -0.019891 25 205 255
0.028558 2.250000 -0.025886 25 205 255
-0.014209 2.250000 -0.030941 25 205 255
-0.035436 2.250000 0.001981 25 205 255
0.040934 2.250000 0.018936 25 205 255
-0.002744 2.250000 0.040960 25 205 255
-0.006223 2.250000 -0.019367 25 205 255
0.001700 2.250000 0.016456 25 205 255
-0.003821 2.250000 -0.026816 25 205 255
0.015258 2.250000 -0.009335 25 205 255
0.011493 2.250000 0.004355 25 205 255
-0.015526 2.250000 0.010719 25 205 255
-0.008789 2.250000 -0.003711 25 205 255
-0.017544 2.250000 0.009747 25 205 255
0.034887 2.250000 -0.003624 25 205 255
-0.015662 2.250000 0.005595 25 205 255
0.018342 2.250000 0.027745 25 205 255
-0.012531 2.250000 -0.016168 25 205 255
0.018566 2.250000 0.000520 25 205 255
-0.024646 2.250000 0.005257 25 205 255
-0.036901 2.250000 -0.002535 25 205 255
0.012351 2.250000 0.004391 25 205 255
0.013300 2.250000 0.009496 25 205 255
0.001534 2.250000 -0.011275 25 205 255
0.003939 2.250000 -0.018475 25 205 255
0.006905 2.250000 0.010610 25 205 255
0.026971 2.250000 -0.044659 25 205 255
0.002069 2.250000 0.023288 25 205 255
0.006113 2.250000 -0.000239 25 205 255
-0.006898 2.250000 -0.012007 25 205 255
-0.005998 2.250000 0.001190 25 205 255
0.013320 2.250000 0.002877 25 205 255
-0.013518 2.250000 0.011972 25 205 255
0.000284 2.250000 0.009401 25 205 255
0.022751 2.250000 -0.007372 25 205 255
0.010788 2.250000 0.028771 25 205 255
-0.009599 2.250000 -0.000039 25 205 255
-0.032960 2.250000 -0.007929 25 205 255
-0.026051 2.250000 0.008325 25 205 255
-0.023523 2.250000 0.012174 25 205 255
0.021877 2.250000 -0.007995 25 205 255
-0.010293 2.250000 -0.016148 25 205 255
-0.011095 2.250000 0.014504 25 205 255
-0.021396 2.250000 0.000514 25 205 255
0.020818 2.250000 0.011339 25 205 255
-0.000348 2.250000 0.007761 25 205 255
0.003690 2.250000 0.010130 25 205 255
0.003454 2.250000 -0.032609 25 205 255
-0.022293 2.250000 -0.002930 25 205 255
-0.025103 2.250000 -0.010609 25 205 255
0.027475 2.250000 0.027161 25 205 255
-0.025708 2.250000 0.017230 25 205 255
-0.009196 2.250000 -0.010748 25 205 255
-0.006583 2.250000 0.026678 25 205 255
0.023937 2.250000 0.016506 25 205 255
-0.014979 2.250000 -0.036061 25 205 255
0.012478 2.250000 -0.007154 25 205 255
-0.013021 2.250000 -0.011895 25 205 255
0.036926 2.250000 0.004249 25 205 255
-0.001247 2.250000 0.025579 25 205 255
-0.013148 2.250000 0.004559 25 205 255
0.007989 2.250000 0.006058 25 205 255
0.030848 2.250000 -0.004393 25 205 255
0.007564 2.250000 0.026081 25 205 255
0.000494 2.250000 -0.015958 25 205 255
-0.010420 2.250000 0.003572 25 205 255
0.065663 2.250000 -0.030098 25 205 255
-0.011991 2.250000 0.005442 25 205 255
-0.007588 2.250000 0.002965 25 205 255
0.017924 2.250000 -0.016756 25 205 255
0.009027 2.250000 0.012102 25 205 255
-0.013880 2.250000 -0.001665 25 205 255
-0.001303 2.250000 -0.016140 25 205 255
0.003315 2.250000 -0.024100 25 205 255
0.016104 2.250000 -0.001056 25 205 255
-0.012758 2.250000 0.009436 25 205 255
0.003257 2.250000 -0.014494 25 205 255
-0.002269 2.250000 -0.014573 25 205 255
-0.004607 2.250000 -0.035284 25 205 255
0.001790 2.250000 0.009886 25 205 255
-0.012951 2.250000 0.007122 25 205 255
0.024876 2.250000 -0.021615 25 205 255
0.030252 2.250000 0.015521 25 205 255
-0.002380 2.250000 -0.009176 25 205 255
-0.050309 2.250000 -0.008778 25 205 255
-0.011493 2.250000 0.002213 25 205 255
-0.016431 2.250000 -0.021240 25 205 255
-0.008728 2.250000 -0.007176 25 205 255
-0.048987 2.250000 0.022617 25 205 255
0.005337 2.250000 -0.008749 25 205 255
0.014997 2.250000 -0.014889 25 205 255
0.006048 2.250000 -0.017485 25 205 255
-0.015407 2.250000 0.005250 25 205 255
0.025963 2.250000 0.013045 25 205 255
-0.020709 2.250000 -0.002349 25 205 255
-0.048657 2.250000 0.001536 25 205 255
0.029847 2.250000 0.004354 25 205 255
0.031225 2.250000 0.000758 25 205 255
0.014289 2.250000 0.005563 25 205 255
-0.000181 2.250000 -0.023811 25 205 255
-0.008095 2.250000 -0.006287 25 205 255
-0.000611 2.250000 0.009431 25 205 255
-0.002979 2.250000 -0.013089 25 205 255
-0.006475 2.250000 0.036135 25 205 255
0.005056 2.250000 -0.017521 25 205 255
0.017416 2.250000 0.004275 25 205 255
-0.044984 2.250000 0.003328 25 205 255
0.014522 2.250000 0.015849 25 205 255
0.022450 2.250000 -0.004406 25 205 255
0.004457 2.250000 -0.013858 25 205 255
0.007695 2.250000 -0.012744 25 205 255
-0.007963 2.250000 -0.004422 25 205 255
0.000964 2.250000 -0.005081 25 205 255
0.031932 2.250000 0.008791 25 205 255
-0.000848 2.250000 -0.004613 25 205 255
0.014289 2.250000 0.012635 25 205 255
0.015891 2.250000 0.015919 25 205 255
-0.016495 2.250000 -0.025104 25 205 255
0.002915 2.250000 -0.014707 25 205 255
-0.018525 2.250000 -0.001015 25 205 255
-0.018666 2.250000 -0.023524 25 205 255
0.040005 2.250000 0.018132 25 205 255
0.004964 2.250000 0.013278 25 205 255
0.027005 2.250000 -0.035807 25 205 255
0.021269 2.250000 -0.016520 25 205 255
-0.022668 2.250000 -0.006880 25 205 255
0.003452 2.250000 0.017016 25 205 255
0.023458 2.250000 0.006377 25 205 255
0.008679 2.250000 0.011781 25 205 255
-0.048448 2.250000 -0.012700 25 205 255
-0.002645 2.250000 0.012562 25 205 255
-0.008316 2.250000 -0.020447 25 205 255
0.003082 2.250000 -0.005279 25 205 255
-0.006660 2.250000 -0.023234 25 205 255
0.002131 2.250000 -0.012367 25 205 255
-0.002836 2.250000 -0.023640 25 205 255
-0.003708 2.250000 0.015951 25 205 255
-0.001516 2.250000 0.003211 25 205 255
0.017127 2.250000 -0.025638 25 205 255
-0.040602 2.250000 0.003546 25 205 255
-0.000438 2.250000 0.000746 25 205 255
0.006950 2.250000 -0.011354 25 205 255
0.021253 2.250000 0.017786 25 205 255
-0.002288 2.250000 -0.024216 25 205 255
-0.007519 2.250000 -0.021883 25 205 255
0.012081 2.250000 0.007660 25 205 255
0.013025 2.250000 -0.002501 25 205 255
0.025283 2.250000 0.014812 25 205 255
0.010420 2.250000 -0.005845 25 205 255
-0.007240 2.250000 -0.004725 25 205 255
-0.000407 2.250000 -0.008309 25 205 255
-0.003572 2.250000 0.008076 25 205 255
-0.042152 2.250000 -0.005758 25 205 255
0.018285 2.250000 0.019748 25 205 255
0.004954 2.250000 0.007033 25 205 255
0.024236 2.250000 -0.008565 25 205 255
-0.009756 2.250000 -0.007251 25 205 255
-0.010671 2.250000 0.000548 25 205 255
0.045019 2.250000 0.000860 25 205 255
-0.009015 2.250000 0.000707 25 205 255
0.010877 2.250000 -0.004007 25 205 255
0.031892 2.250000 -0.004420 25 205 255
-0.036847 2.250000 -0.001519 25 205 255
0.011602 2.250000 -0.018871 25 205 255
-0.002153 2.250000 0.006117 25 205 255
0.011444 2.250000 0.007953 25 205 255
-0.008169 2.250000 0.015991 25 205 255
-0.029590 2.250000 0.013660 25 205 255
0.014903 2.250000 0.010918 25 205 255
0.000257 2.250000 -0.005238 25 205 255
-0.022478 2.250000 -0.002222 25 205 255
0.026179 2.250000 -0.009446 25 205 255
-0.024509 2.250000 -0.006604 25 205 255
0.007209 2.250000 0.002925 25 205 255
0.001792 2.250000 0.000411 25 205 255
-0.005078 2.250000 -0.000142 25 205 255
-0.004938 2.250000 0.011592 25 205 255
-0.001242 2.250000 -0.008703 25 205 255
-0.008378 2.250000 -0.024809 25 205 255
-0.019065 2.250000 -0.014486 25 205 255
0.000624 2.250000 0.007783 25 205 255
0.024276 2.250000 0.004485 25 205 255
0.046150 2.250000 -0.008357 25 205 255
0.015480 2.250000 0.012970 25 205 255
-0.022613 2.250000 0.034742 25 205 255
-0.007171 2.250000 0.028977 25 205 255
-0.022246 2.250000 -0.008209 25 205 255
0.015226 2.250000 -0.005714 25 205 255
-0.006936 2.250000 -0.027583 25 205 255
-0.018413 2.250000 -0.006670 25 205 255
0.002469 2.250000 -0.009227 25 205 255
0.006066 2.250000 -0.026530 25 205 255
-0.006305 2.250000 0.026839 25 205 255
-0.005736 2.250000 0.019295 25 205 255
-0.009347 2.250000 0.011059 25 205 255
0.046813 2.250000 0.003139 25 205 255
-0.008257 2.250000 -0.009170 25 205 255
0.005472 2.250000 -0.022272 25 205 255
0.007867 2.250000 -0.003045 25 205 255
-0.010660 2.250000 -0.003466 25 205 255
-0.010137 2.250000 -0.000046 25 205 255
-0.019142 2.250000 -0.000996 25 205 255
-0.016371 2.250000 -0.001329 25 205 255
-0.000144 2.250000 -0.001814 25 205 255
0.005950 2.250000 0.011420 25 205 255
-0.009719 2.250000 0.023899 25 205 255
-0.033041 2.250000 -0.012913 25 205 255
0.015857 2.250000 -0.032107 25 205 255
0.011858 2.250000 0.001522 25 205 255
-0.022825 2.250000 -0.037661 25 205 255
0.000249 2.250000 0.027972 25 205 255
0.001396 2.250000 -0.031481 25 205 255
0.021388 2.250000 -0.006713 25 205 255
-0.015413 2.250000 0.032985 25 205 255
0.008477 2.250000 0.032126 25 205 255
-0.010569 2.250000 -0.007812 25 205 255
-0.026960 2.250000 -0.020308 25 205 255
0.013797 2.250000 0.004705 25 205 255
0.004953 2.250000 -0.003330 25 205 255
0.002867 2.250000 -0.004573 25 205 255
-0.006195 2.250000 -0.031816 25 205 255
0.019316 2.250000 0.008370 25 205 255
-0.019869 2.250000 0.003013 25 205 255
-0.004648 2.250000 0.014753 25 205 255
-0.004103 2.250000 -0.008982 25 205 255
-0.006581 2.250000 -0.009660 25 205 255
0.001839 2.250000 0.009052 25 205 255
-0.003874 2.250000 0.014891 25 205 255
-0.007702 2.250000 0.006293 25 205 255
0.012822 2.250000 -0.013126 25 205 255
0.013329 2.250000 -0.004486 25 205 255
0.016517 2.250000 -0.009622 25 205 255
-0.022849 2.250000 -0.004628 25 205 255
0.003212 2.250000 0.028591 25 205 255
0.029508 2.250000 0.013212 25 205 255
0.026939 2.250000 0.000747 25 205 255
-0.019960 2.250000 0.007133 25 205 255
0.025444 2.250000 -0.012753 25 205 255
-0.015609 2.250000 -0.002829 25 205 255
0.011897 2.250000 0.006784 25 205 255
0.006084 2.250000 -0.000668 25 205 255
-0.001005 2.250000 -0.000744 25 205 255
0.015433 2.250000 0.003762 25 205 255
-0.037385 2.250000 0.000425 25 205 255
-0.009912 2.250000 -0.028565 25 205 255
-0.018298 2.250000 -0.010481 25 205 255
0.001312 2.250000 0.000880 25 205 255
0.014576 2.250000 -0.007118 25 205 255
-0.002709 2.250000 -0.020044 25 205 255
-0.010109 2.250000 -0.009594 25 205 255
0.010973 2.250000 -0.010595 25 205 255
